ply
format ascii 1.0
comment generated by pc_wslam export
element vertex 1500
property float x
property float y
property float z
property uint landmark_id
end_header
4.20455 0.554511 0.579114 52639
4.34636 0.603347 0.736151 52640
4.27291 0.596335 0.667652 52641
4.95974 -0.3127 0.457484 52642
5.69549 -0.420276 0.958209 52643
5.92836 -0.929637 0.55404 52644
5.3078 -0.75457 0.21022 52645
5.95079 -0.915486 0.527129 52646
3.77145 0.942368 0.00661207 52647
3.49929 0.965332 -0.142387 52648
3.69781 1.14545 0.0912651 52649
3.72928 0.933003 -0.0382117 52650
3.51902 1.01537 -0.109741 52651
11.2228 -2.40971 2.72425 52652
5.28847 0.625791 0.635318 52653
5.30316 0.644604 0.654431 52654
5.34868 0.668419 0.69519 52655
3.51979 1.01194 -0.171012 52656
3.56991 1.06084 -0.112853 52657
6.25545 -0.250652 0.734432 52658
4.36976 0.465891 -0.0147255 52659
11.6737 1.9887 5.10447 52660
5.35174 0.629202 0.587806 52661
5.36798 0.648411 0.607386 52662
5.43543 0.728077 0.688817 52663
5.33322 0.744548 0.577522 52664
5.55253 0.806306 0.728596 52665
3.58962 0.982805 -0.233994 52666
3.43329 0.97855 -0.313785 52667
5.60786 0.831257 0.725998 52668
3.7796 0.935117 -0.196917 52669
5.43655 0.807235 0.575631 52670
5.3591 0.840152 0.411779 52671
5.94907 1.0025 0.72659 52672
3.36439 1.08482 -0.418142 52673
3.94412 1.00945 -0.214997 52674
3.36239 1.0941 -0.42315 52675
5.05286 0.786141 0.166532 52676
4.34138 0.60202 -0.266555 52677
3.50693 0.679854 -0.604023 52678
4.58997 1.32822 0.177214 52679
4.09199 1.08417 -0.161688 52680
3.61225 1.15773 -0.324529 52681
3.62283 1.14552 -0.348884 52682
3.63629 1.19261 -0.318424 52683
3.64076 1.20867 -0.308069 52684
5.27908 0.907813 0.157033 52685
3.36956 1.08979 -0.517339 52686
4.0432 0.986299 -0.314486 52687
3.95576 0.981433 -0.349796 52688
5.63349 1.02846 0.293492 52689
4.20491 1.07165 -0.355071 52690
3.78764 1.08482 -0.551564 52691
4.97812 0.0701578 -0.671068 52692
5.12734 1.40358 -0.0544313 52693
6.46879 1.44012 0.256136 52694
4.80298 -0.0369252 -0.954093 52695
4.72148 -0.0275413 -0.966489 52696
12.7112 4.57487 2.5728 52697
4.20991 1.11911 -0.706755 52698
3.50304 1.19797 -0.827126 52699
3.40818 1.21554 -0.84036 52700
3.87048 1.0609 -0.823076 52701
4.48089 1.33253 -0.668928 52702
4.12794 1.13074 -0.791168 52703
3.60596 1.23603 -0.858609 52704
3.48839 1.13441 -0.91709 52705
3.61704 1.25907 -0.857914 52706
5.23975 0.15863 -1.05379 52707
3.88471 1.11214 -0.908337 52708
3.61964 1.23534 -0.901363 52709
3.63222 1.26899 -0.888456 52710
4.07163 1.26913 -0.870154 52711
3.62256 1.33311 -0.908784 52712
3.32125 1.12804 -1.02036 52713
3.32368 1.1406 -1.01615 52714
4.29323 1.23378 -0.893404 52715
4.09168 1.2231 -0.93718 52716
4.07281 1.18194 -0.972867 52717
3.57808 1.34978 -0.990273 52718
4.09301 1.20551 -1.00558 52719
4.20731 1.26855 -0.98707 52720
4.02748 1.09591 -1.07305 52721
4.10611 1.2221 -1.03105 52722
5.7016 2.29287 -0.629525 52723
4.14251 1.28107 -1.01151 52724
3.5499 1.33686 -1.03112 52725
4.16475 1.18264 -1.06275 52726
4.2927 1.4205 -1.0098 52727
4.73155 1.63835 -0.941409 52728
4.12659 1.25209 -1.08421 52729
3.76424 1.39994 -1.06372 52730
4.17618 1.32941 -1.09336 52731
4.28365 1.44358 -1.08429 52732
4.13997 1.28091 -1.1494 52733
4.40437 1.49664 -1.09366 52734
3.96021 1.2419 -1.15525 52735
3.89026 1.28225 -1.15485 52736
3.80996 1.45907 -1.11419 52737
3.96176 1.34341 -1.1504 52738
5.82451 0.74004 -1.38886 52739
3.90275 1.36417 -1.21377 52740
5.34703 -0.191115 -1.81182 52741
5.54955 -0.202404 -1.84775 52742
5.75125 -0.18679 -1.85853 52743
4.08145 1.50894 -1.27981 52744
3.57553 1.23005 -1.45124 52745
5.8224 -0.213858 -2.29778 52746
4.91832 -0.152796 -2.11222 52747
5.80754 -0.20426 -2.3254 52748
6.23533 1.23634 -1.94825 52749
5.53647 -0.0858045 -2.28533 52750
5.8748 1.0317 -2.05599 52751
3.68494 1.61455 -1.6046 52752
3.62755 1.55984 -1.63007 52753
5.46195 0.620865 -2.49507 52754
2.93946 0.725382 0.15615 52756
2.93156 0.730371 0.152432 52757
3.42506 -0.620247 -0.458013 52758
4.60156 -0.488736 0.743664 52759
4.54382 -0.411359 0.728286 52760
3.85746 0.0543197 0.261013 52761
4.56736 -0.396799 0.707731 52762
4.56964 -0.38282 0.718683 52763
4.5104 -0.836682 0.382822 52764
4.35906 -0.840176 0.206723 52765
4.23172 0.506052 0.794143 52766
4.41021 -0.333456 0.342643 52767
4.54165 -0.342711 0.460584 52768
3.79858 0.475737 0.191278 52769
3.6883 1.01285 0.518641 52770
4.73869 -0.266156 0.323059 52771
4.38583 0.650078 0.59685 52772
5.04328 -0.325322 0.508147 52773
4.63205 -0.276986 0.190757 52774
4.82438 -0.272738 0.340621 52775
4.66647 -0.578624 -0.13287 52776
4.67136 -0.558484 -0.139459 52777
7.23965 -1.25931 1.2249 52778
3.45832 1.03563 -0.104764 52779
3.72159 0.900111 -0.0529759 52780
3.50614 1.09449 -0.0967668 52781
6.49066 -0.969407 0.604949 52782
6.08186 0.781745 1.22816 52783
6.11955 0.797885 1.22662 52784
5.17059 0.626115 0.557995 52785
5.16167 -0.612212 -0.0934514 52786
3.6307 1.02244 -0.157494 52787
3.38507 0.969321 -0.34606 52788
3.66696 1.04009 -0.171693 52789
3.78039 0.903134 -0.216091 52790
3.82693 0.520011 -0.410145 52791
3.35392 0.970949 -0.395072 52792
5.55492 0.840516 0.61562 52793
4.13687 1.10037 0.00161096 52794
3.48914 1.19287 -0.252712 52795
5.05433 0.750288 0.237011 52796
3.45918 1.12298 -0.331917 52797
5.12336 0.199945 -0.0569843 52798
3.654 0.793566 -0.450883 52799
4.17201 1.0895 -0.0732902 52800
5.7603 0.977327 0.543054 52801
4.21113 1.0931 -0.121644 52802
5.29187 1.66921 0.530319 52803
3.9561 0.975983 -0.354833 52804
5.57958 0.617257 0.116442 52805
5.33088 1.6954 0.533178 52806
6.15417 1.17699 0.551891 52807
6.23929 1.21736 0.545029 52808
4.70714 0.818257 -0.230799 52809
5.11957 0.92736 -0.0826211 52810
5.047 0.079777 -0.613306 52811
5.24775 0.0663197 -0.599209 52812
3.95939 0.840383 -0.645602 52813
5.41251 -0.0392265 -0.822497 52814
4.83211 0.345001 -0.793103 52815
3.49065 1.14799 -0.814571 52816
4.31565 1.12908 -0.664362 52817
4.47014 1.25324 -0.590327 52818
4.9959 1.5074 -0.4137 52819
4.23916 1.20887 -0.684601 52820
3.8819 1.50286 -0.682768 52821
3.75584 1.41067 -0.733006 52822
3.48147 1.2126 -0.853062 52823
4.94292 1.58028 -0.488979 52824
4.12741 1.12587 -0.786719 52825
5.04903 -0.444059 -1.25568 52826
3.66371 1.29755 -0.844384 52828
3.79575 1.37543 -0.836152 52829
3.80445 1.39804 -0.827475 52830
4.4782 1.48706 -0.72127 52831
3.6307 1.25002 -0.907947 52832
4.01754 1.21935 -0.883384 52833
3.5135 1.22434 -0.945039 52834
3.56624 1.37343 -0.890565 52835
4.78156 1.70464 -0.6538 52836
4.7094 1.6747 -0.67109 52837
4.28765 1.40643 -0.807967 52838
5.04601 0.578431 -1.04387 52839
3.51531 1.30606 -0.943781 52840
4.30749 1.21995 -0.909226 52841
4.04838 1.23403 -0.962871 52842
4.58266 1.47357 -0.859475 52843
4.01703 1.17569 -0.995812 52844
4.10577 1.29016 -0.953324 52845
3.38421 1.20014 -1.04931 52846
3.38379 1.15658 -1.08878 52847
4.00975 1.15976 -1.10809 52848
3.63437 1.31408 -1.11928 52849
3.56192 1.24731 -1.14685 52850
4.04621 1.22962 -1.15929 52851
3.94992 1.64483 -1.04883 52852
4.23269 1.51665 -1.11005 52853
3.83139 1.23563 -1.17772 52854
5.47331 1.09771 -1.28889 52855
5.09575 0.9866 -1.30639 52856
3.97442 1.47369 -1.31297 52857
3.87905 1.44892 -1.34371 52858
4.13318 1.74617 -1.39273 52859
4.15411 1.78316 -1.38878 52860
3.5614 1.47432 -1.45141 52861
5.19718 0.948519 -1.85586 52862
3.57433 1.50747 -1.45925 52863
5.17915 -0.0187381 -2.16679 52864
5.10531 0.800358 -1.92219 52865
4.10891 1.0593 -1.67277 52866
3.46739 1.46857 -1.77198 52867
3.59355 0.0878287 -2.19644 52868
4.69636 0.137454 -2.79086 52869
3.60323 0.104268 -2.20564 52870
3.38184 0.10487 -2.10237 52871
4.05141 0.0781301 0.443261 52872
4.45431 -0.797751 0.31904 52873
4.94068 -1.30376 0.531308 52874
3.69276 1.00598 -0.0315891 52875
3.57409 0.956564 -0.142206 52876
4.00421 1.0645 0.172496 52877
3.58772 1.04101 -0.105667 52878
3.53345 0.968766 -0.18332 52879
3.38994 0.969774 -0.289135 52880
3.40085 1.01005 -0.258115 52881
3.36562 1.0563 -0.272781 52882
3.36841 1.06446 -0.26621 52883
3.37124 1.07271 -0.259556 52884
3.36201 1.13059 -0.228487 52885
5.32557 -0.650859 -0.0101571 52886
3.41674 0.943317 -0.336364 52887
3.40837 0.975612 -0.322032 52888
3.50661 1.14101 -0.168932 52889
3.91532 0.995848 -0.100424 52890
3.56398 1.28496 -0.128525 52891
3.37321 1.11116 -0.327375 52892
5.4896 0.807437 0.659922 52893
3.2931 1.03257 -0.419506 52894
3.81928 0.911984 -0.225681 52895
3.38806 1.12033 -0.403406 52897
3.98505 0.988333 -0.23634 52898
3.40873 1.14515 -0.424091 52899
3.39313 1.16699 -0.41912 52900
4.2168 1.05794 -0.125658 52901
3.95288 0.943319 -0.302865 52902
3.97921 0.990241 -0.267756 52903
3.93912 1.00334 -0.269664 52904
4.33737 1.24081 0.019442 52905
3.46145 1.07618 -0.458019 52906
3.39841 1.13203 -0.477432 52907
3.40126 1.14032 -0.472024 52908
3.42238 1.20111 -0.432243 52909
3.49585 1.23483 -0.387381 52910
4.24711 1.05277 -0.17608 52911
4.17456 1.02297 -0.219531 52912
3.96061 0.983636 -0.331308 52913
3.55166 1.28701 -0.35894 52914
3.384 1.11541 -0.532237 52915
3.38659 1.12329 -0.52733 52916
4.21558 1.07718 -0.2361 52917
3.54504 1.30869 -0.397039 52918
4.21627 1.0571 -0.299867 52919
3.51062 1.26556 -0.475057 52920
3.40439 1.17106 -0.577546 52921
3.38303 1.14229 -0.636546 52922
3.38562 1.15019 -0.632149 52923
3.38556 1.15974 -0.702805 52924
3.39116 1.17606 -0.694343 52925
5.99242 0.108237 -0.368579 52926
3.49438 1.24049 -0.657786 52927
5.09591 1.28886 -0.400713 52930
4.77706 1.15702 -0.515731 52931
3.46309 1.21935 -0.808386 52932
3.60292 1.35015 -0.768955 52933
3.94503 0.988199 -0.882579 52934
3.78786 1.08093 -0.974481 52935
4.17833 1.35591 -0.841762 52936
3.39844 1.16927 -1.0063 52937
3.36506 1.14687 -1.0191 52938
4.13945 1.14889 -0.932726 52939
4.01652 1.17181 -0.982562 52940
3.28214 1.06891 -1.10835 52941
3.58733 1.37929 -0.989964 52942
3.83263 0.963676 -1.08428 52943
3.49667 1.28311 -1.03023 52944
4.35098 1.26911 -0.966614 52945
4.49927 1.40074 -0.917611 52946
4.17715 1.2133 -1.00038 52947
4.16347 1.26306 -0.987428 52948
3.33409 1.15572 -1.09651 52949
5.39338 2.02204 -0.691508 52950
3.78433 1.0241 -1.12331 52951
5.10475 1.76409 -0.855306 52952
3.8748 1.15345 -1.12081 52953
5.60923 2.23287 -0.777268 52954
3.8665 1.20391 -1.12955 52955
4.00072 1.30937 -1.09725 52956
4.30293 1.47484 -1.08423 52957
4.35916 1.41314 -1.10156 52958
3.84044 1.07921 -1.20121 52959
3.82897 1.24911 -1.23603 52960
4.95097 -0.129545 -1.7738 52961
3.86359 1.34811 -1.29446 52962
3.60172 1.18621 -1.33283 52963
3.85401 1.44455 -1.39729 52964
5.44629 -0.224583 -2.1346 52965
5.44196 -0.216887 -2.13078 52966
4.83415 -0.155071 -2.01621 52967
3.82108 1.46789 -1.43122 52968
5.92644 1.05953 -2.06603 52969
3.50973 0.0709362 -0.102853 52977
4.52185 -0.387506 0.69561 52978
3.77687 0.0693987 0.15253 52979
3.78838 0.0741407 0.16836 52980
5.49522 -0.349838 0.826617 52981
3.29946 0.930532 -0.271164 52982
3.76179 1.08877 0.0615809 52983
3.54629 0.902485 -0.195514 52984
3.68138 0.935477 -0.112128 52985
3.53896 1.03764 -0.138083 52986
3.63395 0.935232 -0.1747 52987
3.23618 1.01427 -0.363295 52988
3.7356 0.994015 -0.110769 52989
3.2476 0.989515 -0.394497 52990
3.31415 0.966832 -0.375843 52991
3.3168 0.975245 -0.369311 52992
5.53892 0.755864 0.775357 52993
3.25763 1.03738 -0.388185 52994
5.85021 0.755179 0.941706 52995
3.35671 0.988371 -0.370667 52996
3.34684 1.08076 -0.319184 52997
5.10536 0.6977 0.44136 52998
3.56909 0.871052 -0.329053 52999
3.2466 1.02533 -0.423585 53000
3.24956 1.03473 -0.422013 53001
3.69843 0.93157 -0.263888 53002
3.36629 1.08407 -0.35505 53003
3.36967 1.09394 -0.347676 53004
3.25018 1.03604 -0.442544 53005
3.91775 0.965771 -0.134866 53006
3.26957 1.00576 -0.471667 53007
3.24698 1.02665 -0.471014 53008
3.24951 1.03545 -0.464795 53009
3.37305 1.11955 -0.390032 53010
3.80091 0.898291 -0.314669 53011
3.81251 0.91035 -0.302798 53012
3.64451 0.856923 -0.443045 53013
3.35287 1.08239 -0.464404 53014
3.25067 1.02707 -0.541257 53015
3.25524 1.04026 -0.532445 53016
3.23341 1.02202 -0.571447 53017
4.02665 1.02652 -0.211311 53018
3.33698 0.987172 -0.548184 53019
4.19426 1.08129 -0.145738 53020
3.39717 1.1717 -0.454351 53021
5.07568 0.833027 0.0946927 53022
4.17093 1.05987 -0.197369 53023
4.19849 1.10394 -0.164203 53024
3.39597 1.17851 -0.473736 53025
3.36398 1.09567 -0.549367 53026
3.36702 1.10494 -0.543592 53027
4.15071 1.04894 -0.248911 53028
4.15704 1.0594 -0.24132 53029
3.3625 1.09462 -0.55568 53030
3.22048 0.954231 -0.695428 53031
4.16204 1.04749 -0.274079 53032
3.21931 0.95346 -0.700697 53033
3.23107 0.998174 -0.674667 53034
3.39519 1.16368 -0.530736 53035
3.39894 1.17414 -0.52426 53036
3.40275 1.18474 -0.517682 53037
4.12536 1.01438 -0.34028 53038
3.17341 0.967732 -0.74525 53039
4.16101 1.02024 -0.35378 53040
3.3819 1.14079 -0.593862 53041
4.10775 1.02324 -0.410963 53042
3.38577 1.16621 -0.606576 53043
5.56143 1.09111 0.107961 53044
3.36605 1.12262 -0.653036 53045
3.3692 1.13202 -0.647799 53046
3.3686 1.15272 -0.66367 53047
3.34746 1.1084 -0.708887 53048
3.35385 1.15407 -0.706691 53049
4.85413 1.21822 -0.240864 53050
4.71201 -0.0164593 -0.980861 53052
5.25191 -0.0226498 -0.864523 53053
5.42697 0.425502 -0.648707 53054
4.25209 1.15089 -0.67497 53055
4.22331 1.14275 -0.691572 53056
4.16008 1.14878 -0.756127 53057
3.48347 1.16187 -0.884393 53058
3.98472 1.04924 -0.850363 53059
4.01402 1.07357 -0.836065 53060
4.1886 1.11611 -0.823838 53061
3.88434 0.951238 -0.949477 53062
4.17274 1.16891 -0.856952 53063
3.39362 1.18957 -0.976417 53064
3.98209 1.1284 -0.930254 53065
4.10426 1.29668 -0.857198 53066
3.73476 1.03322 -1.011 53067
4.92184 1.6308 -0.708302 53068
5.3935 -0.441341 -1.39684 53069
3.84427 1.0795 -1.00732 53070
4.84301 0.568183 -1.10501 53071
3.97382 1.20588 -0.983359 53072
3.97849 1.21554 -0.980023 53073
3.97826 1.22206 -0.977936 53074
3.34713 1.13516 -1.07489 53075
4.1826 1.18047 -0.993102 53076
3.93864 1.18077 -1.01631 53077
3.94287 1.18998 -1.01325 53078
3.94715 1.19927 -1.01015 53079
3.18938 0.998671 -1.14516 53080
4.22891 1.28205 -0.982826 53081
4.87507 1.68714 -0.823191 53082
3.85579 1.07452 -1.14137 53083
5.3444 0.815728 -1.44212 53084
5.36917 0.831692 -1.4358 53085
3.91639 1.34636 -1.2478 53086
4.78401 0.292982 -1.63717 53087
4.82805 0.302846 -1.6379 53088
3.85957 1.34054 -1.29268 53089
3.82227 1.31185 -1.30041 53090
3.85323 1.37031 -1.29005 53091
3.8597 1.38249 -1.2879 53092
3.97452 1.49456 -1.32154 53093
3.41109 1.1287 -1.42591 53094
5.20315 -0.198631 -2.14834 53095
3.19711 1.10666 -1.58913 53096
5.90653 2.00775 -2.14057 53097
4.86488 0.230548 -2.38296 53098
4.5102 0.0700836 -2.33977 53099
4.86556 0.970121 -2.55258 53100
4.34054 -0.328643 0.367645 53104
3.72921 1.0207 0.00618221 53105
5.38403 0.676024 0.744993 53106
4.63666 0.623622 0.0466456 53107
5.15687 0.911732 -0.000628078 53108
5.0262 1.24864 -0.414662 53109
5.03694 1.26393 -0.406402 53110
5.82295 2.12108 -0.16614 53111
4.13153 1.2305 -0.969954 53112
3.8132 1.05484 -1.15989 53113
3.84699 1.08314 -1.15101 53114
3.60347 0.0683948 -0.0374419 53115
4.52512 -0.41344 0.625057 53116
4.60792 -0.421313 0.708374 53117
4.37418 0.624042 0.770067 53118
4.84999 -0.28316 0.38365 53119
3.67134 0.863547 -0.142222 53120
3.57317 0.97262 -0.192945 53121
3.18722 0.882943 -0.477189 53122
3.22331 0.979976 -0.397451 53123
3.23059 1.00515 -0.377807 53124
3.22073 0.952395 -0.462305 53125
3.20465 0.975326 -0.456699 53126
5.14406 0.705882 0.453773 53127
3.71732 0.871315 -0.259784 53128
3.76044 0.963514 -0.21498 53129
3.24087 1.01661 -0.460107 53130
3.22605 0.997993 -0.500665 53131
4.92009 0.704961 0.192881 53132
3.16732 0.900651 -0.603836 53133
3.90368 0.955341 -0.268895 53134
3.69965 0.882415 -0.400908 53135
4.01223 1.51627 0.0756932 53136
3.53503 0.736766 -0.577646 53137
3.1918 0.965086 -0.617621 53138
3.22558 1.00482 -0.583359 53139
5.21551 0.86335 0.182464 53140
3.2256 0.953748 -0.650767 53141
3.20651 0.971301 -0.649416 53142
3.2089 0.981801 -0.643129 53143
3.21528 0.974325 -0.684077 53144
4.90093 0.819009 -0.0986622 53145
5.43578 0.988402 0.142082 53146
3.16411 0.911897 -0.76978 53147
4.15095 1.03719 -0.394034 53148
4.17655 1.0598 -0.374899 53149
4.33016 1.20017 -0.667188 53150
4.05166 1.68637 -0.591191 53151
3.99467 1.04261 -0.845297 53152
3.9877 1.12089 -0.816347 53153
3.8679 1.46792 -0.805492 53154
3.01487 0.517441 -1.27002 53155
3.48136 1.2233 -1.01633 53156
3.90996 1.12914 -1.06744 53157
3.71429 0.98721 -1.22154 53158
3.92534 1.2749 -1.14445 53159
5.01813 0.728064 -1.44562 53160
5.63683 -0.269271 -1.8702 53161
4.57135 -0.113682 -1.73182 53162
4.6927 -0.165933 -2.04983 53163
7.37714 1.88038 -2.76684 53164
3.63882 0.0530296 0.0445752 53168
4.10467 0.077582 0.540575 53169
4.70773 -0.82344 0.592135 53170
4.33077 -0.374181 0.429609 53171
4.32394 -0.0831283 0.466006 53172
4.59842 0.69979 1.0451 53173
4.18357 0.56288 0.488004 53174
4.48362 -0.251059 0.219148 53175
3.95572 -0.165742 -0.277324 53176
3.19228 0.321895 -0.661653 53177
3.25373 0.878367 -0.334792 53178
3.48102 0.982957 -0.141725 53179
3.49466 1.04392 -0.165409 53180
3.10758 0.835789 -0.527152 53181
3.31208 1.08037 -0.273268 53182
3.12647 0.901323 -0.492514 53183
7.05863 -1.13974 0.901364 53184
3.61612 0.906912 -0.207766 53185
4.18773 1.32349 0.3778 53186
3.28291 0.970418 -0.367182 53187
3.18992 0.93273 -0.445496 53188
3.55007 0.972635 -0.222931 53189
3.31539 0.99895 -0.343045 53190
5.0449 0.579921 0.404968 53191
3.96603 0.988343 -0.0329069 53192
3.32667 1.02196 -0.373315 53193
3.19871 0.963737 -0.47263 53194
3.36714 1.14185 -0.281177 53195
3.8205 0.991858 -0.143019 53196
3.72801 0.948192 -0.215996 53197
3.83301 1.00182 -0.142456 53198
3.82323 1.00658 -0.146001 53199
3.33826 1.05599 -0.3773 53200
3.34374 1.07248 -0.364987 53201
3.36731 1.14256 -0.312417 53202
3.71872 0.879846 -0.282937 53203
3.3381 1.05621 -0.387174 53204
3.14075 0.91731 -0.592973 53205
4.981 0.719454 0.235721 53206
4.16668 1.14427 0.0278056 53207
3.63671 1.29871 -0.155654 53208
5.0723 0.751676 0.261803 53209
3.35677 1.13414 -0.40358 53210
3.70673 0.886518 -0.374018 53211
3.3289 1.05091 -0.471344 53212
3.23104 1.00943 -0.557351 53213
3.30074 1.02921 -0.528199 53214
3.13289 0.911874 -0.669863 53215
3.32268 1.09235 -0.525625 53216
3.36642 1.13055 -0.497649 53217
5.71003 0.999041 0.458915 53218
4.49078 0.669122 -0.250634 53219
4.83252 1.3501 0.224748 53220
4.0151 0.958805 -0.32013 53221
3.71585 0.846779 -0.505018 53222
6.214 1.15622 0.677495 53223
4.1944 1.05572 -0.250889 53224
3.10191 0.859322 -0.787931 53225
5.64927 1.04736 0.265821 53226
4.48133 0.708833 -0.359062 53227
4.13138 1.00526 -0.356329 53228
4.44748 1.19234 -0.187002 53229
5.33445 1.00336 -0.00457573 53230
5.35021 1.02433 0.00999922 53231
3.32363 1.06708 -0.692318 53232
3.33461 1.12152 -0.681115 53233
5.41191 0.0775336 -0.522404 53234
5.42114 1.07198 -0.111664 53235
6.0672 0.087315 -0.335647 53236
6.07359 0.103992 -0.326846 53237
6.0803 0.120752 -0.317913 53238
4.87263 -0.0197499 -0.936045 53239
7.33244 0.611713 -0.136825 53240
5.25711 0.400282 -0.684201 53241
3.53757 1.20204 -0.785847 53242
3.53314 1.2241 -0.804842 53243
3.75979 0.847906 -0.897361 53244
4.05661 1.03882 -0.775392 53245
3.48623 1.15374 -0.872737 53246
3.49217 1.16969 -0.866053 53247
3.47842 1.20294 -0.962744 53248
4.1078 1.2004 -0.887403 53249
4.00127 1.22353 -0.905645 53251
3.6128 1.31529 -0.973235 53252
3.44388 1.16787 -1.03213 53253
3.45093 1.18494 -1.0264 53254
3.90494 1.14946 -0.997653 53255
4.73778 -0.0859194 -1.34761 53256
5.54744 0.1069 -1.21162 53257
3.77715 -0.163299 -1.47096 53258
3.96363 1.10184 -1.02571 53259
4.00538 1.22254 -0.985436 53260
5.37575 -0.201591 -1.39996 53261
5.25664 -0.175096 -1.40294 53262
5.36493 -0.174897 -1.39038 53263
4.13786 1.17031 -1.00803 53264
4.25894 1.29432 -0.997923 53265
3.93772 1.18192 -1.09869 53266
3.63108 0.97564 -1.2306 53267
3.99884 1.29146 -1.14097 53268
3.99908 1.35933 -1.12687 53269
3.9295 1.31937 -1.14836 53270
4.01748 1.44753 -1.18678 53271
5.77859 0.733828 -1.49046 53272
5.72389 0.890947 -1.43831 53273
5.14246 -0.136902 -1.77751 53274
3.72432 1.33693 -1.33664 53275
3.78636 1.38695 -1.34727 53276
3.93797 1.52716 -1.33788 53277
3.73486 1.38711 -1.36566 53278
3.79185 1.42117 -1.42855 53279
4.6184 -0.151624 -1.97708 53280
5.48965 -0.270128 -2.19041 53281
5.84926 -0.281262 -2.3154 53282
5.76931 -0.258962 -2.28812 53283
5.67249 -0.198803 -2.27821 53284
5.37908 -0.0271 -2.22677 53285
5.35483 -0.0134783 -2.21601 53286
5.31705 0.00743857 -2.22923 53287
4.63991 0.226691 -1.99106 53288
5.18746 0.824113 -1.93527 53289
4.91677 1.52736 -1.78071 53290
3.04989 0.931196 -1.56434 53291
5.15249 0.0549608 -2.63855 53293
4.34989 0.0480179 -2.51212 53295
5.46493 0.761389 -2.94698 53297
4.75356 0.615714 -2.62126 53298
3.74315 0.0524812 0.151073 53302
3.85878 0.0618966 0.288961 53303
3.89425 -0.337956 0.0570698 53304
3.96225 0.0734573 0.370244 53305
4.22175 -0.380021 0.349518 53306
3.86072 0.067267 0.232389 53307
4.28536 -0.343782 0.367459 53308
3.70275 -0.223511 -0.208405 53309
4.36764 -0.363436 0.373824 53310
4.63633 -0.275664 0.693911 53311
4.65075 -0.262707 0.71618 53312
4.21381 -0.239755 0.112959 53313
4.16725 0.573325 0.593266 53314
4.21073 0.553466 0.545889 53315
4.22733 0.572615 0.573633 53316
4.42998 -0.248348 0.197 53317
4.85156 -0.28987 0.422422 53318
4.23107 0.616448 0.291593 53319
3.43523 0.941839 -0.203864 53320
4.46047 0.701283 0.269489 53321
3.31549 0.949601 -0.309098 53322
3.15802 0.924628 -0.445281 53323
3.78221 0.500701 -0.324406 53324
3.16084 0.927465 -0.452819 53325
3.70011 1.05959 -0.0841533 53326
3.4975 0.806144 -0.361708 53327
3.62498 0.903406 -0.233322 53328
5.37225 0.700696 0.675135 53329
3.6601 0.90372 -0.225268 53330
3.7758 1.21024 0.0165019 53331
5.36263 0.70526 0.645771 53332
3.39614 1.00651 -0.329984 53333
4.1033 1.06362 0.0850843 53334
3.47967 0.922397 -0.338202 53335
3.39704 1.00801 -0.341015 53336
3.70495 0.921 -0.227281 53337
4.08365 1.04267 0.0278659 53338
3.17547 0.943802 -0.550726 53339
4.12087 1.10558 0.0133921 53340
3.33451 1.01412 -0.437581 53341
3.47866 1.24448 -0.254415 53342
4.08766 1.09134 -0.0449188 53343
3.20041 0.941779 -0.569647 53344
4.08583 1.09539 -0.0768326 53345
8.6776 2.01139 2.64309 53346
4.02538 1.04406 -0.147683 53347
3.50021 1.08043 -0.382755 53348
3.39918 1.00114 -0.482443 53349
3.17059 0.940939 -0.613776 53350
3.33513 0.955687 -0.536552 53351
3.4486 1.05446 -0.456484 53352
3.16486 0.936465 -0.647161 53353
4.02 1.04065 -0.214737 53354
3.4397 1.0209 -0.483109 53355
3.31764 0.921445 -0.603655 53356
3.97201 0.963884 -0.303596 53357
3.42277 1.17966 -0.439746 53358
6.26091 1.13552 0.781689 53359
3.82693 0.900794 -0.430245 53360
3.56413 0.757194 -0.620552 53361
4.04919 0.973299 -0.424803 53362
4.16667 1.03009 -0.366297 53363
6.06231 1.24458 0.364968 53364
4.54116 0.0736656 -0.787521 53365
5.86841 1.25972 0.0129597 53366
4.75286 1.2671 -0.305592 53367
6.30727 1.38962 0.1662 53368
3.95116 0.979135 -0.821032 53369
4.26256 1.25558 -0.693195 53370
3.82847 1.01755 -0.864463 53371
4.19884 1.16755 -0.77183 53372
3.69225 1.24458 -0.86825 53373
3.31687 1.07724 -0.998407 53374
3.91091 1.06272 -0.948211 53375
4.28813 1.38991 -0.799167 53376
5.61258 0.69974 -0.996738 53377
3.84833 1.10673 -1.0405 53378
3.85655 1.12463 -1.03448 53379
3.56854 1.33417 -1.00643 53380
4.62556 1.52873 -0.888809 53381
4.12463 1.26137 -1.00999 53382
4.29774 1.25632 -1.01639 53383
4.43966 1.45291 -1.02596 53384
4.85508 1.78754 -0.989021 53385
3.64956 1.08687 -1.21717 53386
5.11176 0.596092 -1.41116 53387
5.22116 0.983533 -1.35704 53388
3.65592 1.21079 -1.34245 53389
3.70178 1.29019 -1.35112 53390
3.72471 1.33669 -1.3442 53391
3.88245 1.46654 -1.34103 53392
3.7061 1.32306 -1.35574 53393
3.69012 1.34117 -1.37203 53394
3.5518 1.22694 -1.41818 53395
3.62141 1.30279 -1.4127 53396
4.64732 -0.151603 -1.98447 53397
3.81504 1.45175 -1.43657 53398
5.13078 0.887248 -1.81875 53399
4.91006 -0.0687653 -2.1278 53400
5.19637 0.266964 -2.11426 53401
5.30893 1.72016 -1.79903 53402
3.73887 1.66294 -1.61178 53403
5.34437 0.24585 -2.54525 53404
5.33445 0.343606 -2.56372 53405
5.7215 0.0519265 -3.18398 53406
3.80449 0.0697777 0.24069 53408
3.82442 0.0788635 0.278505 53409
3.82161 0.0828855 0.276536 53410
4.29564 -0.310891 0.32608 53411
4.49097 -0.106494 0.594542 53412
4.25367 0.618397 0.591354 53413
3.33182 0.959305 -0.239787 53414
3.59299 0.901055 -0.13507 53415
3.67714 0.889594 -0.0880753 53416
3.65471 0.902514 -0.0957107 53417
3.49813 0.943982 -0.200642 53418
3.37969 1.02921 -0.233859 53419
3.53259 0.963499 -0.188216 53420
3.50457 1.00645 -0.184971 53421
3.36682 0.986884 -0.293651 53422
3.74788 0.946768 -0.0882206 53423
3.26111 0.961818 -0.394624 53424
3.29589 0.997324 -0.353532 53425
3.29642 1.00294 -0.349884 53426
3.30006 1.04849 -0.320604 53427
3.38796 0.92421 -0.381831 53428
3.3381 0.893148 -0.428736 53429
3.28318 1.02126 -0.390081 53430
3.33319 1.03877 -0.370542 53431
5.281 0.67469 0.651981 53432
3.3843 1.10463 -0.329556 53433
5.67541 -1.05947 0.0254035 53434
3.8012 1.00626 -0.156974 53435
3.80356 1.01324 -0.151921 53436
3.3208 1.05877 -0.409087 53437
3.24932 1.02737 -0.463847 53438
3.80098 1.0123 -0.159867 53439
3.25334 0.971391 -0.529351 53440
3.28215 1.03502 -0.481174 53441
3.41438 1.05346 -0.449703 53442
3.33472 1.06988 -0.500973 53443
3.33505 1.07534 -0.498057 53444
3.24004 1.01883 -0.568463 53445
3.89623 0.987751 -0.274649 53446
3.31362 1.06079 -0.55451 53447
3.24271 1.02446 -0.604876 53448
3.35535 1.08838 -0.561007 53449
3.35579 1.09394 -0.558188 53450
3.34546 1.07963 -0.586427 53451
4.04833 1.0064 -0.302415 53452
3.42024 1.1075 -0.543463 53453
3.31251 1.07644 -0.637064 53454
3.43063 1.07994 -0.627566 53455
4.26839 1.00748 -0.333787 53456
3.43053 1.18231 -0.602592 53457
3.34916 1.10944 -0.666548 53458
3.34933 1.11466 -0.664261 53459
4.4409 1.08306 -0.293663 53460
4.66753 1.19387 -0.160268 53461
4.35108 1.05383 -0.338144 53462
3.32229 1.0901 -0.720082 53463
4.37765 1.05261 -0.386534 53464
3.29367 1.07363 -0.770742 53465
3.50995 1.25276 -0.646595 53466
3.41262 1.1897 -0.719396 53467
3.39396 1.15217 -0.759535 53468
5.58882 0.100151 -0.47509 53469
5.56534 0.107739 -0.47962 53470
4.4363 1.05046 -0.480292 53471
3.44072 1.20258 -0.762824 53472
3.49229 1.30307 -0.749837 53473
4.73378 1.13181 -0.479102 53474
3.38831 1.156 -0.84449 53475
3.38803 1.16073 -0.842945 53476
3.377 1.18798 -0.838508 53477
4.6863 1.10585 -0.534023 53478
3.43284 1.23129 -0.842419 53479
3.34356 1.1471 -0.89399 53480
4.85216 0.371946 -0.803172 53481
3.41076 1.2162 -0.871972 53482
4.18752 1.19965 -0.696809 53483
3.39282 1.08357 -0.933382 53484
4.13686 1.14459 -0.760109 53485
4.32481 1.24591 -0.72741 53486
3.41299 1.1924 -0.946279 53487
3.414 1.21878 -0.938267 53488
3.39605 1.20242 -0.961344 53489
3.69474 1.32494 -0.878902 53490
3.94926 1.18555 -0.871974 53491
3.37357 1.18686 -0.98807 53492
3.37334 1.1916 -0.986774 53493
3.37309 1.19634 -0.985485 53494
4.38218 1.26548 -0.813098 53495
4.34261 1.27886 -0.843048 53496
4.34326 1.28527 -0.84103 53497
4.30566 1.23843 -0.882307 53498
4.23141 1.22282 -0.94407 53499
4.06783 1.2501 -0.959552 53500
3.83937 1.66074 -0.895656 53501
4.62907 1.42357 -0.86725 53502
4.08674 1.20349 -0.988846 53503
4.51654 1.51044 -0.858451 53504
3.59634 1.40116 -1.0118 53505
3.33649 1.17874 -1.11426 53506
4.28216 1.32844 -1.00435 53507
4.28229 1.33448 -1.00275 53508
4.1743 1.21358 -1.0654 53509
4.37467 1.39726 -1.03106 53510
4.30707 1.50236 -0.99873 53511
3.92489 1.27918 -1.13212 53512
4.2843 1.37711 -1.11365 53513
4.05537 1.42556 -1.20147 53514
4.53427 0.628679 -1.45691 53515
3.68754 1.23558 -1.30544 53516
3.70112 1.40752 -1.42441 53517
4.26972 1.87906 -1.41923 53518
5.85864 -0.302055 -2.28676 53519
5.27423 -0.20781 -2.18034 53520
5.01992 0.889712 -1.8116 53521
5.01586 0.894455 -1.80966 53522
5.01179 0.899183 -1.80774 53523
6.09081 -0.0395189 -2.38695 53524
6.62764 -0.0441172 -2.50707 53525
6.46754 -0.0298767 -2.4663 53526
6.25856 -0.287409 -2.85819 53527
5.98245 -0.235552 -2.82627 53528
4.47637 -0.414837 0.58845 53529
4.57831 -0.422743 0.686512 53530
4.51043 -1.0764 0.195485 53531
4.56724 -1.09958 0.241728 53532
4.50296 -0.358798 0.520564 53533
4.29374 -0.0938697 0.417399 53534
4.29294 -0.0905192 0.407581 53535
4.196 0.582017 0.56921 53536
4.76098 -0.25613 0.30816 53537
4.77047 -0.260545 0.302009 53538
3.78293 0.972013 0.0118254 53539
3.54379 0.90016 -0.191931 53540
3.20712 0.981439 -0.400576 53541
3.62828 0.982185 -0.151569 53542
3.54096 0.930375 -0.2349 53543
3.4948 0.936763 -0.262288 53544
3.31899 0.971826 -0.355003 53545
3.25756 0.953878 -0.408674 53546
3.63222 1.0327 -0.148193 53547
3.51103 0.953827 -0.270061 53548
3.5279 1.02893 -0.216962 53549
3.21063 0.953257 -0.464293 53550
3.53332 1.13557 -0.186362 53551
5.1191 0.648572 0.513762 53552
3.84538 0.940181 -0.133811 53553
3.26065 1.00509 -0.452766 53554
5.59162 0.704695 0.778379 53555
3.72883 0.956871 -0.229768 53556
3.24037 0.984561 -0.497458 53557
5.87387 0.874962 0.958167 53558
3.37992 1.10294 -0.397879 53559
5.71595 0.902988 0.704159 53560
3.84258 0.889141 -0.309382 53561
3.33487 0.9807 -0.533731 53562
3.44443 1.08163 -0.428005 53563
3.28968 1.03019 -0.5396 53564
3.26717 1.04277 -0.545244 53565
4.20049 1.1723 -0.0253839 53566
3.85844 0.963812 -0.307697 53567
3.90207 0.983496 -0.30603 53568
3.24543 0.993343 -0.624093 53569
5.53298 0.920079 0.441818 53570
4.10196 1.02616 -0.213544 53571
4.0998 0.981557 -0.259866 53572
3.28691 1.05412 -0.619892 53573
4.18566 1.02491 -0.273472 53574
4.3664 1.06752 -0.213228 53575
4.35938 1.06563 -0.22488 53576
4.30285 1.0499 -0.315942 53577
5.69918 1.09846 0.220265 53578
4.61139 0.811496 -0.373833 53579
3.78763 1.09756 -0.563009 53580
4.93768 0.105535 -0.67008 53581
4.52808 1.08795 -0.432866 53582
5.30974 1.07053 -0.216992 53583
3.51565 1.3237 -0.735398 53584
3.56756 1.32785 -0.744819 53585
5.26473 -0.0369193 -0.856045 53586
5.17882 -0.0253559 -0.87157 53587
4.33847 1.19936 -0.644103 53588
4.16364 1.17659 -0.7093 53589
3.52875 1.20094 -0.86032 53590
3.5287 1.20706 -0.858366 53591
3.52288 1.20238 -0.865987 53592
4.27167 1.21566 -0.707726 53593
4.18364 1.16924 -0.74491 53594
4.17145 1.17225 -0.769815 53595
3.47126 1.28773 -0.891311 53596
4.4346 1.30681 -0.675455 53597
4.12133 1.13561 -0.799385 53598
4.79228 1.52315 -0.53363 53599
3.56637 1.34506 -0.876699 53600
3.41824 1.22609 -0.961266 53601
4.33518 1.25767 -0.802771 53602
3.44702 1.19239 -0.983485 53603
4.29148 1.20576 -0.832921 53604
3.37044 1.14677 -1.01808 53605
3.86845 1.04598 -0.965701 53606
4.09334 1.24921 -0.872571 53607
4.09766 1.28618 -0.86088 53608
3.36416 1.2 -1.01721 53609
4.18288 1.21611 -0.875026 53610
4.23349 1.25324 -0.877268 53611
4.23535 1.19321 -0.902244 53612
4.23622 1.20047 -0.89996 53613
4.22231 1.23207 -0.909116 53614
4.22436 1.24002 -0.90666 53615
4.21291 1.26598 -0.902691 53616
4.16859 1.24806 -0.91532 53617
4.01491 1.19593 -0.952265 53618
3.41684 1.20185 -1.04658 53619
3.31435 1.14758 -1.07577 53620
4.20156 1.21934 -0.923962 53621
4.2019 1.22631 -0.921892 53622
4.35506 1.29126 -0.909236 53623
4.01309 1.24137 -0.962738 53624
3.5103 1.33643 -1.01925 53625
4.08671 1.12095 -1.0163 53626
4.38751 1.49764 -0.875376 53627
3.34818 1.19343 -1.09378 53628
4.35613 1.27988 -0.941588 53629
3.34191 1.18749 -1.10009 53630
5.49095 -0.410555 -1.42994 53631
5.56538 -0.122293 -1.31276 53632
6.13731 0.132241 -1.1717 53633
4.30167 1.29252 -0.973882 53634
4.10482 1.21722 -1.01327 53635
5.15846 -0.346391 -1.4409 53636
4.20745 1.27669 -1.01016 53637
4.21089 1.29237 -1.00597 53638
4.26907 1.33482 -0.991079 53639
4.25581 1.30662 -1.00606 53640
4.25669 1.31421 -1.00397 53641
4.25754 1.3218 -1.00189 53642
4.25834 1.3294 -0.999807 53643
4.2124 1.27992 -1.0392 53644
4.00698 1.27178 -1.06268 53645
4.19824 1.21709 -1.065 53646
4.12569 1.23594 -1.11206 53647
3.92769 1.22722 -1.12844 53648
4.11213 1.38264 -1.07717 53649
4.24496 1.31308 -1.09121 53650
4.60728 1.57291 -1.03465 53651
4.06883 1.30396 -1.12742 53652
3.7441 1.11587 -1.19221 53653
4.2301 1.38628 -1.12017 53654
4.15154 1.34303 -1.13578 53655
3.25756 1.11696 -1.24165 53656
5.24773 0.64702 -1.40278 53657
3.71887 1.20942 -1.25887 53658
5.23046 0.78583 -1.43062 53659
5.29349 0.805518 -1.43251 53660
5.29135 0.812753 -1.43031 53661
3.89279 1.4166 -1.3307 53662
3.8741 1.42108 -1.35656 53663
4.24025 1.90776 -1.38566 53664
3.50481 1.17724 -1.44212 53665
6.21747 -0.308023 -2.78609 53666
6.3645 -0.287879 -2.9229 53667
4.96502 0.534023 -2.34477 53668
4.39297 0.0805837 0.818138 53669
3.97772 1.10147 0.159326 53670
3.26052 1.01864 -0.353447 53671
5.26297 0.650086 0.522482 53672
5.33316 0.731556 0.604247 53673
3.49089 1.09046 -0.43814 53674
5.04622 0.803621 0.123202 53675
5.52383 0.97495 0.298038 53676
3.32809 1.07556 -0.684588 53677
3.34521 1.1295 -0.75764 53678
6.3052 0.0961824 -0.277705 53679
3.30408 1.06496 -0.842692 53680
3.35209 1.11165 -0.859286 53681
3.35444 1.14909 -0.845661 53682
4.32212 1.23433 -0.687962 53683
4.27762 1.21863 -0.702591 53684
4.32481 1.26023 -0.885802 53685
4.00403 1.13727 -0.972262 53686
5.27835 0.642682 -1.40346 53687
5.24724 0.0988884 -1.66502 53688
3.8522 1.38053 -1.33065 53689
5.40295 0.00597958 -2.26208 53690
5.3209 0.882449 -1.96922 53691
4.23843 -0.932231 -0.00133428 53692
4.02298 -0.262585 0.0897678 53693
4.14831 -0.108022 0.264625 53694
4.40449 -0.322905 0.36492 53695
3.46773 0.908689 -0.239672 53696
3.46499 0.970971 -0.234028 53697
3.56218 1.05319 -0.124768 53698
3.34272 0.973092 -0.341883 53699
3.4042 0.843227 -0.399289 53700
6.33211 -0.90657 0.489694 53701
5.02212 0.649066 0.404632 53702
4.39458 1.32973 0.367182 53703
3.5452 0.845161 -0.386068 53704
5.52918 0.868708 0.538186 53705
3.58711 1.16092 -0.365364 53706
3.58894 1.17223 -0.358963 53707
5.38516 0.883284 0.319153 53708
4.04495 0.981092 -0.311016 53709
4.01145 0.972647 -0.355157 53710
4.23207 1.05625 -0.292007 53711
4.20154 1.03649 -0.344539 53712
4.17174 1.01735 -0.395094 53713
4.14959 0.654124 -0.584447 53714
4.63215 0.0939724 -0.779277 53715
3.44688 1.24003 -0.720026 53716
3.81169 1.62151 -0.551573 53717
3.7722 1.57184 -0.606424 53718
3.77566 1.58737 -0.600227 53719
3.43907 1.14041 -0.858654 53720
4.07959 1.12518 -0.749319 53721
4.04781 1.15802 -0.771403 53722
4.16521 1.15788 -0.772153 53723
3.98698 1.19932 -0.870544 53724
3.44665 1.1785 -0.979133 53725
4.15179 1.21257 -0.866311 53726
4.05782 1.25145 -0.867556 53727
4.12356 1.27846 -0.877405 53728
4.39725 1.27822 -0.864983 53729
4.06835 1.09992 -0.963418 53730
3.40174 1.17592 -1.06498 53731
3.58462 1.41945 -0.977215 53732
5.0694 1.053 -0.903877 53733
5.06974 1.09931 -0.889393 53734
4.00587 1.21657 -0.986923 53735
3.97255 1.07706 -1.05299 53736
3.33303 1.1701 -1.11106 53737
4.19974 1.26937 -1.00299 53738
4.05488 1.30443 -1.05516 53739
4.20994 1.34977 -1.08141 53740
4.05623 1.29384 -1.13043 53741
4.01783 1.30196 -1.13424 53742
3.94332 1.29591 -1.13884 53743
3.9774 1.21505 -1.17976 53744
4.32788 1.61144 -1.07681 53745
4.33247 1.6266 -1.07328 53746
3.17318 1.00804 -1.27043 53747
3.16951 1.01108 -1.27011 53748
3.16575 1.01402 -1.26982 53749
4.1285 1.56091 -1.20312 53750
4.02661 1.4599 -1.27285 53751
3.93169 1.43528 -1.32365 53752
3.80629 1.37218 -1.3276 53753
3.73288 1.37976 -1.42958 53754
5.79338 -0.284952 -2.2956 53755
5.80539 -0.262332 -2.30916 53756
5.73182 -0.208665 -2.31523 53757
5.08955 1.60706 -1.79662 53758
5.85374 -0.192458 -2.85167 53759
7.18902 0.507894 -3.2066 53760
3.48263 -0.0246063 -0.14642 53761
3.81911 0.0648714 0.231221 53762
4.06699 -0.298677 0.244253 53763
4.04916 0.0750895 0.45853 53764
4.3964 -0.342819 0.569043 53765
4.11635 0.0781248 0.512642 53766
4.57122 -0.451579 0.675865 53767
4.3895 -0.371463 0.484992 53768
4.72431 -0.953118 0.503415 53769
4.5083 -1.1077 0.195089 53770
4.25363 -0.321147 0.290906 53771
4.35573 -0.334337 0.387999 53772
4.2932 -0.28691 0.350422 53773
4.25195 -0.271338 0.262266 53774
4.19506 0.598067 0.616152 53775
4.15147 -0.220295 0.0500565 53776
4.20395 0.58362 0.578118 53777
4.14825 0.565881 0.457968 53778
5.20893 0.859486 1.52031 53779
4.8794 -0.292716 0.436762 53780
4.42403 -0.239507 0.059126 53781
4.82122 -0.274537 0.346364 53782
3.41655 1.00879 -0.131131 53783
4.86257 0.810995 0.712181 53784
3.15744 0.828602 -0.485287 53785
3.27877 0.927181 -0.350883 53786
3.5009 0.837997 -0.330239 53787
3.48324 1.01645 -0.266896 53788
5.4459 0.645103 0.749253 53789
3.35501 0.982776 -0.381798 53790
5.17162 -0.748714 -0.101808 53791
5.41499 0.685342 0.714997 53792
3.84248 0.933986 -0.135448 53793
5.62734 -1.05847 0.0130784 53794
7.16771 0.948071 1.85644 53795
3.8328 0.931857 -0.167254 53796
3.21137 0.956142 -0.519494 53797
5.2378 -0.622099 -0.0611257 53798
3.67536 1.13257 -0.167097 53799
3.80155 0.934364 -0.242526 53800
3.74168 0.895193 -0.314136 53801
3.97262 1.0364 -0.150557 53802
3.29191 1.01677 -0.524614 53803
5.09899 0.915946 0.391624 53804
3.44944 1.05346 -0.429448 53805
3.45136 1.06558 -0.422496 53806
3.44029 1.0645 -0.430794 53807
3.77159 0.914975 -0.338597 53808
3.76548 0.913067 -0.353757 53809
3.37812 0.961576 -0.534686 53810
3.41682 1.01536 -0.505231 53811
3.41749 1.02613 -0.499589 53812
5.50431 0.884888 0.474809 53813
5.6131 1.07508 0.618164 53814
4.07551 1.03586 -0.254769 53815
4.64646 1.32505 0.122625 53816
3.53448 1.20294 -0.449633 53817
5.22299 0.895635 0.108791 53818
4.18048 1.11709 -0.254113 53819
4.13959 1.01294 -0.32982 53820
3.48136 1.11514 -0.578644 53821
3.48389 1.13898 -0.56718 53822
4.11048 1.02792 -0.392108 53823
5.56261 -0.631624 -0.913782 53824
3.43175 1.16927 -0.822786 53825
3.45137 1.19547 -0.810239 53826
3.35684 1.14646 -0.885076 53827
4.78512 1.14865 -0.515764 53828
3.31393 1.10622 -0.916266 53829
4.1158 1.05663 -0.743672 53830
4.30885 1.17571 -0.648776 53831
3.5577 1.3477 -0.790806 53832
3.51103 1.18557 -0.867541 53833
4.0911 1.16463 -0.758051 53834
3.74227 0.968495 -0.899342 53835
3.07765 0.858178 -1.08918 53836
3.19895 0.981554 -1.02314 53837
3.48512 1.28166 -0.887707 53838
3.48577 1.29366 -0.883949 53839
4.78703 1.50708 -0.54198 53840
3.46325 1.22895 -0.92419 53841
3.44741 1.10296 -0.978227 53842
3.44424 1.24448 -0.939201 53843
3.48381 1.20128 -0.958664 53844
3.42407 1.22613 -0.963884 53845
3.42361 1.23637 -0.961062 53846
6.07345 -0.638818 -1.18345 53847
3.40614 1.16897 -0.998398 53848
3.40579 1.17874 -0.995725 53849
4.18391 1.32679 -0.815727 53850
4.16832 1.22482 -0.856606 53851
4.16679 1.31766 -0.832229 53853
4.16814 1.3309 -0.828047 53854
4.54142 1.35234 -0.769118 53855
4.12117 1.15301 -0.897018 53856
4.15493 1.29934 -0.84772 53857
3.37334 1.19009 -1.02033 53858
3.37199 1.19899 -1.01817 53859
3.35207 1.18044 -1.04085 53860
4.45694 1.315 -0.841874 53861
4.17097 1.18816 -0.935506 53862
3.31527 1.13669 -1.08569 53863
4.03596 1.24752 -0.954893 53864
3.9774 1.21664 -0.97419 53865
3.99435 1.22813 -0.987926 53866
3.28722 1.11094 -1.11612 53867
5.18459 0.61825 -1.05313 53868
5.24926 -0.375927 -1.43646 53869
5.24747 -0.363157 -1.43149 53870
5.20736 -0.112757 -1.33695 53871
5.20512 -0.100457 -1.33245 53872
4.4701 1.3534 -0.964239 53873
4.21069 1.20509 -1.0455 53874
4.24315 1.23601 -1.0329 53875
4.32179 1.28449 -1.01826 53876
4.09334 1.28268 -1.12028 53877
4.10656 1.28365 -1.12757 53878
4.04925 1.2506 -1.14543 53879
3.13331 0.969963 -1.27064 53880
3.35431 1.20902 -1.22016 53881
5.40283 1.07843 -1.3335 53882
4.17127 1.57406 -1.25403 53883
4.4553 1.85634 -1.20677 53884
5.38936 0.307705 -1.66252 53885
3.69365 1.24786 -1.3519 53886
3.86303 1.52172 -1.39801 53887
3.75293 1.4465 -1.39978 53888
5.56221 -0.245198 -2.16079 53889
5.54941 -0.230195 -2.15261 53890
4.85632 -0.214893 -2.06015 53891
4.89279 0.831097 -1.78664 53892
4.97962 0.866873 -1.79348 53893
5.07138 0.904834 -1.80068 53894
5.42132 0.835866 -1.90611 53895
4.718 0.297266 -2.33847 53896
3.98595 -0.0256857 0.427649 53897
3.99752 -0.0145013 0.448717 53898
3.88219 0.0711058 0.338641 53899
4.29337 0.035556 0.717002 53900
4.27005 -0.382111 0.376749 53901
4.44887 -0.411546 0.550503 53902
4.32719 -0.77334 0.197309 53903
4.29388 -0.338372 0.356261 53904
4.33741 -0.339898 0.378145 53905
4.19705 -0.313986 0.228496 53906
4.45719 -0.356997 0.466163 53907
4.55201 -0.275386 0.609353 53908
4.47995 -0.317494 0.462993 53909
4.44025 -0.334951 0.367223 53910
4.16228 0.550626 0.458631 53911
4.18899 0.586494 0.505576 53912
3.18383 0.781571 -0.431724 53913
3.40899 0.926488 -0.213376 53914
3.46762 0.956195 -0.170816 53915
3.3131 0.860449 -0.358448 53916
3.70834 1.07542 0.00855988 53917
5.22194 -0.72781 0.138095 53918
3.39933 0.916922 -0.304047 53919
3.47458 1.03037 -0.190777 53920
5.24026 -0.689806 0.144152 53921
3.26713 0.900537 -0.439498 53922
3.59502 0.928721 -0.216936 53923
3.44647 0.958684 -0.303379 53924
3.45207 0.988244 -0.283007 53925
4.51648 0.492595 0.0923064 53926
4.38077 0.691544 0.101261 53927
3.26684 0.959445 -0.450651 53928
3.63536 0.993218 -0.218381 53929
3.43032 0.949139 -0.368299 53930
5.56985 0.708615 0.817111 53931
3.27965 0.99937 -0.438865 53932
3.60007 0.861411 -0.337215 53933
3.82606 0.914657 -0.18625 53934
4.23031 1.20767 0.199871 53935
3.78921 0.967774 -0.186721 53936
4.14635 1.10372 0.0263911 53937
3.36102 1.07705 -0.426594 53938
3.94698 0.944848 -0.191449 53939
3.2293 0.927628 -0.593349 53940
3.32334 0.935656 -0.552298 53941
5.7592 1.11164 0.828018 53942
3.93436 0.970892 -0.23074 53943
3.93965 0.987202 -0.220268 53944
4.1016 1.10565 -0.0804148 53945
4.1685 1.34539 0.0548111 53946
4.04134 1.0113 -0.215289 53947
3.31129 1.01009 -0.614112 53948
3.96052 0.924334 -0.370016 53949
4.34492 1.16317 -0.0796211 53950
4.99051 0.809636 0.0218564 53951
4.2589 1.0525 -0.233916 53952
5.28752 0.907557 0.134626 53953
3.98949 1.00677 -0.393645 53954
3.4447 1.02348 -0.639399 53955
4.9711 0.903536 -0.0614809 53956
4.05593 0.994285 -0.424823 53957
4.14392 0.978429 -0.411392 53958
4.16903 1.03249 -0.378793 53959
5.05708 0.924375 -0.162365 53960
6.01176 0.0903251 -0.320256 53961
3.29277 1.04726 -0.849466 53962
3.25502 1.04764 -0.902924 53963
3.66273 1.38449 -0.691804 53964
3.68321 1.46649 -0.658194 53965
3.41985 1.10183 -0.862519 53966
4.92259 1.19598 -0.448367 53967
6.04829 0.451553 -0.467998 53968
5.01641 -0.0472157 -0.921254 53969
5.50349 0.422864 -0.624965 53970
3.51092 1.25774 -0.829473 53971
4.22027 1.18923 -0.68815 53972
4.17003 1.17251 -0.70859 53973
4.80025 1.60879 -0.454341 53974
3.51396 1.28267 -0.857801 53975
3.54567 1.34068 -0.8441 53976
4.20676 1.14732 -0.762822 53977
3.593 1.22914 -0.901191 53978
3.4791 1.26652 -0.930012 53979
3.47885 1.27961 -0.926278 53980
3.46648 1.19149 -0.963566 53981
4.04161 1.19854 -0.871745 53982
4.17145 1.86509 -0.660829 53983
3.44239 1.20832 -0.981664 53984
3.4387 1.25584 -0.969079 53985
4.03036 1.2208 -0.878997 53986
4.09542 1.1864 -0.887122 53987
4.01139 1.19731 -0.901088 53988
4.04337 1.24834 -0.878459 53989
3.99502 1.18904 -0.917925 53990
4.36557 1.2497 -0.879418 53991
4.36643 1.26504 -0.874757 53992
4.27162 1.21862 -0.909209 53993
4.27001 1.22779 -0.911146 53994
3.35969 1.13627 -1.07583 53995
3.59525 1.41733 -0.96976 53996
3.4359 1.17762 -1.06886 53997
4.23574 1.28234 -0.935119 53998
3.33032 1.089 -1.11639 53999
3.31189 1.10543 -1.12278 54000
3.30596 1.12195 -1.11958 54001
5.41022 0.0832764 -1.23226 54002
5.2251 0.0977549 -1.24505 54003
4.82372 1.63511 -0.840479 54004
3.74411 1.38056 -1.06527 54005
3.66654 1.32468 -1.09929 54006
4.14028 1.31292 -1.11077 54007
3.65946 1.31094 -1.1451 54008
5.29791 2.03333 -0.854194 54009
4.50858 1.54395 -1.05825 54010
3.1615 0.981751 -1.26693 54011
3.61265 1.46511 -1.13744 54012
3.2666 1.10244 -1.24766 54013
3.85978 1.31149 -1.22426 54014
5.56968 0.421949 -1.58911 54015
5.88971 -0.215783 -1.87961 54016
5.67223 -0.225314 -2.2162 54017
5.69664 -0.257058 -2.25317 54018
5.644 -0.220477 -2.28739 54019
5.62389 -0.201825 -2.27586 54020
5.89926 1.13329 -1.90652 54021
4.87964 1.09094 -1.73244 54022
5.63398 -0.214825 -2.30264 54023
5.44442 -0.0461694 -2.23382 54024
4.92896 0.504582 -1.93114 54025
5.13277 0.248817 -2.10748 54026
5.43193 0.898305 -1.97986 54027
5.11384 0.0595202 -2.57402 54028
4.3024 0.609162 0.675981 54029
3.30833 0.942428 -0.259435 54030
4.97401 -0.29098 0.448333 54031
4.82257 -0.260788 0.341183 54032
3.64386 0.901822 -0.104744 54033
3.56354 0.921457 -0.162418 54034
3.50595 0.951123 -0.214744 54035
3.29917 0.986903 -0.355651 54036
3.24025 0.953714 -0.417064 54037
3.69898 0.892124 -0.124871 54038
3.5122 0.94134 -0.243322 54039
3.51316 0.946868 -0.239776 54040
3.29257 0.956646 -0.4008 54041
3.29291 0.96163 -0.397884 54042
3.25469 1.0083 -0.398739 54043
3.23252 1.01561 -0.410703 54044
3.46269 0.987125 -0.277528 54046
3.41115 0.974755 -0.318477 54047
3.24727 1.01727 -0.421165 54048
3.59927 0.939288 -0.209148 54049
3.57005 0.926573 -0.235335 54050
3.35163 0.981636 -0.388393 54051
3.35251 0.991977 -0.382436 54052
3.35291 0.997157 -0.379476 54053
3.3215 1.02013 -0.390723 54054
3.32173 1.02527 -0.387891 54055
3.22241 1.00796 -0.491143 54056
3.76368 0.895757 -0.209297 54057
3.2144 1.00046 -0.536606 54058
3.82487 0.932427 -0.154901 54059
3.21342 0.999291 -0.541981 54060
3.24432 1.03299 -0.504297 54061
3.77982 0.979099 -0.188271 54062
3.88713 1.04127 -0.087617 54063
3.2923 1.02547 -0.489545 54064
5.58513 0.714244 0.861758 54065
5.3512 0.679123 0.689888 54066
3.86665 0.945475 -0.176656 54067
3.86477 0.971391 -0.166182 54068
3.23252 1.01497 -0.558425 54069
3.26596 1.05811 -0.518373 54070
3.44794 1.05474 -0.420659 54071
5.47758 0.689644 0.682953 54072
3.89983 0.938206 -0.213864 54073
3.90239 0.944778 -0.209346 54074
3.37533 1.02701 -0.518365 54075
3.24919 1.00466 -0.625523 54076
3.94941 1.00662 -0.231565 54077
3.88298 0.995498 -0.27355 54078
3.29151 1.07616 -0.61009 54079
3.88154 0.88974 -0.370417 54080
4.22196 1.03934 -0.173436 54081
3.29065 1.08929 -0.677279 54082
3.35307 1.10237 -0.675127 54083
4.21015 0.999547 -0.308378 54084
5.1919 0.57517 -0.0634511 54085
4.64676 1.15317 -0.323881 54086
5.39438 0.117526 -0.532173 54087
3.44206 1.1959 -0.848276 54088
3.39245 1.15674 -0.877366 54089
4.95164 1.22309 -0.447426 54090
4.2974 1.17861 -0.659463 54091
4.23306 1.15143 -0.683409 54092
3.34311 1.12471 -0.973534 54093
4.0117 1.1407 -0.805027 54094
3.99009 1.13374 -0.811302 54095
4.00086 1.14534 -0.805311 54096
4.23922 1.12451 -0.765536 54097
3.50803 1.17006 -0.958045 54098
3.49379 1.23807 -0.961565 54099
3.49368 1.24292 -0.960411 54100
3.93236 1.14661 -0.882915 54101
3.95131 1.19307 -0.868193 54102
4.00502 1.15429 -0.93026 54103
3.48868 1.24393 -1.0468 54104
4.07918 1.13017 -0.950721 54105
4.06472 1.26022 -0.978604 54106
4.06743 1.27275 -0.975285 54107
3.99838 1.23451 -0.993196 54108
4.06998 1.28527 -0.971997 54109
3.50289 1.28722 -1.10156 54110
4.33023 1.26274 -0.97116 54111
4.43976 1.32828 -0.937742 54112
4.08891 1.28985 -1.01134 54113
5.1121 0.625676 -1.07382 54114
4.00467 1.27995 -1.06498 54115
4.12409 1.36651 -1.03399 54116
3.38637 1.24788 -1.20349 54117
4.06703 1.28169 -1.11799 54118
3.99363 1.30458 -1.14288 54119
4.06562 1.32656 -1.13447 54120
3.86999 1.3687 -1.24602 54121
3.79238 1.35792 -1.31266 54122
3.9451 0.0905108 0.343075 54123
3.35781 0.928871 -0.220263 54124
3.26616 0.912797 -0.314812 54125
3.43915 0.954355 -0.199098 54126
4.75523 -0.251784 0.295637 54127
3.31949 0.983234 -0.288519 54128
3.52107 0.922511 -0.186118 54129
3.56747 0.921301 -0.155755 54130
3.51966 0.921845 -0.194321 54131
3.46952 0.919593 -0.255406 54132
3.42495 0.897149 -0.296462 54133
3.47758 0.960484 -0.227335 54134
3.43409 0.96586 -0.258987 54135
3.29215 0.997401 -0.34895 54136
3.27372 0.983992 -0.372203 54137
3.23764 0.98136 -0.401931 54138
3.23782 0.987312 -0.398512 54139
3.29407 0.995435 -0.357661 54140
3.94327 1.06592 0.158982 54141
3.56319 0.942176 -0.206278 54142
3.44073 0.965995 -0.310653 54143
3.37677 0.947789 -0.372574 54144
3.33165 0.975222 -0.391416 54145
3.33192 0.981039 -0.38834 54146
3.30354 0.998049 -0.401799 54147
3.26097 0.994791 -0.456587 54148
3.28998 1.03833 -0.465121 54149
3.87654 0.951163 -0.111303 54150
3.79815 0.932275 -0.19592 54151
3.2831 1.02535 -0.497142 54152
3.28312 1.03114 -0.494306 54153
3.2831 1.03692 -0.491496 54154
3.26128 1.00712 -0.526423 54155
3.84427 0.92752 -0.201183 54156
3.35564 0.996584 -0.542851 54157
3.28966 1.06455 -0.568162 54158
3.33757 1.11792 -0.518279 54159
3.9427 0.944754 -0.231045 54160
3.88 0.952149 -0.266793 54161
3.88222 0.959577 -0.262223 54162
3.32559 1.06437 -0.574424 54163
3.94165 0.964541 -0.261908 54164
3.95304 0.99615 -0.241858 54165
3.94769 1.01516 -0.257703 54166
3.97524 1.03073 -0.243674 54167
